# .PCD v0.7 - Point Cloud Data file format
VERSION 0.7
FIELDS x y z
SIZE 4 4 4
TYPE F F F
COUNT 1 1 1
WIDTH 1507
HEIGHT 1
VIEWPOINT 0 0 0 1 0 0 0
POINTS 1507
DATA ascii
1.1494663 4.0510116 0.10858003
1.2542362 4.0436172 0.10448731
1.3507122 4.0512753 0.10356336
1.4484349 4.0539174 0.11516082
1.551037 4.0470977 0.11607219
1.6481434 4.0528111 0.10958999
1.7511858 4.0472732 0.11400567
1.8498287 4.0492983 0.11078984
1.9493413 4.048564 0.11422533
2.0473559 4.0522213 0.10978275
2.1422923 4.0518451 0.13438521
2.2507529 4.0433888 0.12704104
2.362653 4.0448546 0.11552963
2.4434066 4.0520172 0.11035521
2.5421152 4.0461507 0.12430178
2.6568236 4.0559902 0.11348322
2.7482336 4.0489635 0.12697643
2.8524246 4.0566812 0.13602431
2.9500854 4.0501933 0.13022552
3.0572789 4.0498857 0.11876816
3.145118 4.0486135 0.12914331
3.2546284 4.0477772 0.12731822
3.3451171 4.0467768 0.1294897
3.433023 4.0512562 0.12238903
3.5680745 4.0450988 0.11333077
3.6509426 4.0527449 0.11993786
3.7483833 4.0487432 0.13023992
3.8501289 4.0441236 0.12632488
3.9471831 4.0515866 0.13336772
4.0400643 4.0512671 0.14094971
4.1561637 4.0494242 0.12746218
4.2548628 4.050046 0.12522513
4.3500519 4.0511065 0.13447522
4.4521074 4.0504208 0.14475337
4.5532422 4.0482116 0.13958259
4.635705 4.0524955 0.12802806
4.7608581 4.0495806 0.12349799
4.8538985 4.0516214 0.12935041
4.9431009 4.0556316 0.14487654
5.0536542 4.0508971 0.13727847
5.1545815 4.0572076 0.13151501
5.2519445 4.0487413 0.13479345
5.3501077 4.0517383 0.13084435
5.447032 4.0548182 0.13250875
5.5468597 4.0528135 0.13062496
5.6555667 4.0339036 0.12106678
5.7512169 4.0554113 0.11300357
5.8446541 4.0494194 0.13705526
5.9609747 4.056118 0.13018893
6.0409856 4.0523605 0.12839107
6.1633821 4.0517678 0.13011751
6.2285137 4.0413108 0.1368586
6.3581567 4.0559936 0.1243863
6.4540772 4.0507402 0.13163777
6.5431428 4.040935 0.13175245
6.6593876 4.0503554 0.13030894
6.749969 4.0521579 0.13932167
6.8506322 4.0482898 0.13755402
6.9468365 4.0469804 0.13695031
7.0541306 4.0364947 0.13423942
7.1390553 4.0670233 0.13404897
7.2576594 4.0541115 0.12190948
7.3449693 4.044847 0.12069695
7.4485898 4.0535512 0.11888356
7.5329685 4.0523067 0.10662894
7.6618929 4.0523133 0.12899019
7.7481313 4.033227 0.1409888
7.8598781 4.0534678 0.12567572
7.9324617 4.0552697 0.11872026
8.0667858 4.048285 0.10985476
8.1531343 4.0522213 0.11737964
8.2712173 4.0456533 0.13562439
8.341321 4.0459437 0.13785557
8.4494009 4.059947 0.12755567
8.5379486 4.043891 0.11664303
8.6403713 4.0283532 0.10934797
8.7623291 4.0576506 0.12267546
8.8694077 4.039351 0.14408781
8.949832 4.0603352 0.1364471
9.0523052 4.0506721 0.12575796
9.136631 4.0411797 0.13025877
9.22995 4.056706 0.11809549
9.3525534 4.0629053 0.117002
9.4522486 4.0470142 0.1570451
9.5515594 4.0533037 0.1489457
9.6698599 4.0659647 0.14054896
9.7587509 4.0478673 0.13042837
9.8420916 4.0402679 0.12844753
9.9419613 4.0569334 0.11841746
10.012503 4.0064192 0.1082747
10.636007 4.070817 -0.00037300301
10.754278 4.0470576 -0.00092107971
11.282984 4.0495291 0.00012076185
11.35885 4.0471039 4.4535485e-05
11.460423 4.0541439 -0.00025705609
11.561123 4.0491185 -7.6470824e-05
11.646487 4.0496116 0.00017147906
-1.9479389 4.1498756 -0.00038869286
-1.849272 4.1495905 -9.4552473e-05
-1.7494848 4.149713 0.00028009948
-1.6486338 4.149816 -0.00029223139
-1.5488992 4.15063 0.00010952407
-1.4518437 4.1505656 -0.00038987002
-1.354625 4.1502433 -0.00024374212
-1.2538229 4.1501927 -1.7385169e-06
-1.1510204 4.1506934 1.0258521e-05
-1.0488342 4.1508632 0.00044102539
-0.94897997 4.1509614 0.00050300214
-0.84974557 4.1507125 1.8509723e-05
-0.74933988 4.1506176 -0.00023937805
-0.64830041 4.1509118 0.00038811943
-0.54809129 4.150888 -0.00037370535
-0.45009547 4.1507506 0.00012118178
-0.35211518 4.1507196 6.5886088e-05
-0.25177893 4.1508431 0.00021921701
-0.15022039 4.1508975 -0.00025263301
-0.046453185 4.1506767 0.034931391
0.052246686 4.1515937 0.083865456
0.15189841 4.1507645 0.089893386
0.24952687 4.1522789 0.093720101
0.34734213 4.1501803 0.10156807
0.44316018 4.1508327 0.10374784
0.55326688 4.1506362 0.078535259
0.64705878 4.150733 0.10011986
0.75219166 4.1480131 0.10183926
0.84817773 4.1484628 0.10144459
0.94911504 4.1502199 0.10907085
1.0464685 4.1503515 0.11963101
1.1520753 4.1497798 0.1137021
1.2517611 4.1492071 0.11267626
1.3549855 4.1455016 0.10516033
1.4451219 4.1523304 0.11034822
1.5492576 4.1511459 0.11121665
1.6458246 4.1441307 0.11845455
1.7487552 4.1571045 0.11709808
1.8518181 4.1515527 0.10862606
1.9482957 4.1494112 0.1030178
2.0489275 4.1478214 0.10176288
2.1441891 4.1476674 0.12947625
2.2503488 4.1520572 0.12342439
2.3565042 4.1512918 0.10631226
2.4487088 4.1491189 0.10339379
2.5502224 4.1518307 0.12059748
2.6531026 4.1457262 0.11289165
2.7555916 4.1509957 0.12086087
2.8391995 4.1495795 0.13485983
2.9524159 4.1556754 0.12599061
3.0542231 4.1533904 0.11604179
3.1459754 4.1524315 0.12646386
3.2564692 4.1419158 0.12904704
3.3567679 4.1465273 0.11555909
3.4514718 4.152564 0.11179724
3.5531671 4.1561055 0.1123113
3.6473339 4.1458464 0.12526359
3.7491684 4.1483831 0.13295375
3.8486755 4.1566982 0.13704057
3.948823 4.1482201 0.13087429
4.0387073 4.1484113 0.13732204
4.1433387 4.154726 0.12747978
4.2494349 4.1488438 0.12236386
4.3385835 4.14818 0.13774902
4.4457784 4.1500325 0.1465034
4.5493422 4.1550212 0.14068964
4.6475005 4.1536326 0.13581283
4.7493262 4.1406021 0.13667001
4.8487778 4.1556659 0.13410245
4.9534116 4.1508808 0.14032795
5.0445423 4.1574621 0.13296102
5.1573133 4.149528 0.13556692
5.2551994 4.1509976 0.13925581
5.3408337 4.1543036 0.13967882
5.4597101 4.1593642 0.14400193
5.5458322 4.1432724 0.13810733
5.6321139 4.1607699 0.13444117
5.7594085 4.1427388 0.11451894
5.841639 4.1499791 0.13879339
5.9450951 4.1452026 0.14045782
6.0402808 4.1518354 0.13675715
6.1510458 4.1472945 0.13984673
6.2601385 4.1573954 0.13286743
6.3378572 4.144917 0.13430026
6.4406066 4.1486969 0.13540494
6.546814 4.1462226 0.12801145
6.6633449 4.1474857 0.12396865
6.7391787 4.1483164 0.13182959
6.837564 4.1539049 0.14012296
6.9526858 4.1482277 0.13201903
7.0554566 4.1541715 0.12259185
7.151195 4.1470919 0.13266428
7.2519002 4.1522894 0.13023055
7.3369913 4.1494017 0.12384196
7.4596319 4.1444769 0.11459524
7.5428929 4.1615143 0.12573698
7.6508789 4.1481218 0.138274
7.7692871 4.1554537 0.12800664
7.8500843 4.1487813 0.12458234
7.9395118 4.146944 0.12526135
8.0551348 4.1549497 0.10903615
8.1521292 4.1326041 0.13291223
8.2645102 4.1560221 0.13648456
8.3587122 4.1419201 0.1279231
8.4473534 4.1482992 0.12826858
8.5363646 4.164433 0.11140689
8.6504345 4.1511207 0.10358597
8.7641888 4.152463 0.11713894
8.8555117 4.1591401 0.14032346
8.9512577 4.1416984 0.13636695
9.0493565 4.1501198 0.13457526
9.1351595 4.1503148 0.1273254
9.2374697 4.167654 0.11924308
9.354475 4.1503181 0.10016076
9.4991512 4.1450453 0.1607722
9.5532675 4.1556439 0.15075968
9.6182652 4.1282735 0.14500464
9.7636013 4.1450019 0.13144416
9.8517275 4.1585093 0.1265028
9.9342403 4.1406922 0.11937611
10.032467 4.1493988 0.11330658
10.641368 4.1333771 0.00012505341
10.74308 4.1675987 0.00053608703
11.286609 4.1595702 -0.00044098636
11.36033 4.1524453 -3.3636752e-05
11.458965 4.1525517 7.6182507e-05
11.555544 4.1523476 0.00013724928
11.645678 4.1489992 -0.0001620985
11.703278 4.1027808 -0.0030233832
-1.9476693 4.2509618 -5.9367389e-06
-1.8498921 4.2507777 -0.00046387047
-1.7505046 4.2498507 -0.00033826381
-1.6488113 4.2494307 -2.8054006e-05
-1.5505412 4.2494912 0.00033308551
-1.452028 4.2491641 0.00053690845
-1.3538688 4.2487111 0.00025815901
-1.2541534 4.2490158 5.1295665e-05
-1.1514812 4.248312 0.00018309818
-1.0488522 4.2486725 0.00013479874
-0.94895101 4.2484097 -2.1404918e-05
-0.8496834 4.2485576 2.5644398e-05
-0.74902439 4.2483311 7.8342833e-05
-0.64844263 4.2485733 -0.00024246174
-0.5486275 4.2484183 -5.4052984e-05
-0.45020041 4.2486281 -0.00013361189
-0.35204464 4.2488513 -0.00026539809
-0.25168648 4.2490768 -0.00016377943
-0.15032999 4.248383 0.00057358819
-0.044777866 4.2483292 0.014333547
0.047218215 4.2465978 0.05023741
0.15282261 4.2504153 0.06624601
0.24793756 4.2491632 0.095126033
0.35183376 4.2481923 0.091394529
0.4477343 4.2510467 0.080040142
0.5560143 4.2487512 0.066252835
0.64842838 4.2497044 0.097008437
0.74750245 4.2529621 0.10513388
0.85208714 4.2509971 0.11208138
0.9450568 4.2525463 0.12205762
1.0530175 4.2461953 0.11541554
1.1546563 4.2528181 0.11263385
1.254701 4.2495975 0.11636195
1.3465123 4.2498622 0.10871554
1.4513528 4.2500916 0.10965615
1.5489389 4.2456422 0.12358023
1.6496377 4.2509041 0.11606047
1.7537687 4.2435617 0.10510965
1.8471557 4.2541828 0.10818505
1.9574982 4.2520709 0.10622801
2.0516024 4.2485256 0.10863451
2.1509018 4.2517219 0.12551101
2.2542591 4.2502203 0.1136424
2.3462849 4.252655 0.1124008
2.4458544 4.2432952 0.11065713
2.5431645 4.2483082 0.11822574
2.6556206 4.2563953 0.10395631
2.7494578 4.2485056 0.11405127
2.8439717 4.2458777 0.11794434
2.9480634 4.2523322 0.12108599
3.052901 4.2484293 0.12444187
3.150511 4.2473722 0.1344084
3.2481673 4.259901 0.1370924
3.3541532 4.2462134 0.12625815
3.4483871 4.2549095 0.11315881
3.5468359 4.2421799 0.11854016
3.6479795 4.2534785 0.12078172
3.749233 4.2473674 0.12552229
3.853754 4.2506471 0.13076153
3.9440327 4.2535458 0.13473429
4.0458837 4.2455287 0.13411096
4.1530581 4.2588992 0.12520587
4.2526898 4.2489243 0.11628986
4.3420267 4.2503657 0.1333487
4.4622822 4.2510386 0.14491177
4.564126 4.250329 0.13625126
4.6355968 4.2452397 0.14202638
4.7596302 4.2661448 0.13181616
4.8492064 4.2520714 0.12460754
4.9485655 4.2458811 0.129081
5.0562868 4.2573023 0.13195893
5.1412458 4.2505918 0.1290247
5.2426143 4.2512531 0.12386051
5.3553009 4.2468171 0.12784469
5.4487944 4.2464838 0.13399296
5.5493951 4.2504401 0.13928282
5.6592569 4.2531123 0.12649667
5.7494187 4.2522054 0.12623058
5.854671 4.2513337 0.13690342
5.9477 4.2457089 0.14144957
6.0584717 4.2466278 0.13752656
6.1479211 4.2566228 0.12076486
6.2441564 4.2516985 0.1308597
6.3539009 4.2555418 0.13740484
6.4440322 4.2376657 0.12873313
6.5471635 4.2528481 0.12768804
6.6526914 4.2535977 0.12702812
6.7340384 4.2499537 0.13400143
6.8462048 4.2420301 0.13132294
6.9348888 4.2493124 0.13360108
7.0616341 4.2576804 0.12677421
7.1503096 4.249701 0.1304519
7.2465224 4.2570481 0.13494045
7.3413997 4.2471395 0.13428652
7.4654098 4.2446971 0.1170347
7.5420365 4.2467976 0.12014278
7.6440759 4.2481422 0.13884188
7.766746 4.2475715 0.13262598
7.843751 4.2542176 0.1305358
7.9491587 4.2424569 0.11849814
8.0564289 4.2557163 0.095822379
8.1435757 4.2624826 0.13099559
8.2648811 4.2427306 0.13303012
8.3523378 4.2532415 0.1335934
8.4545774 4.2538671 0.12009885
8.5450516 4.2422175 0.12187829
8.6632566 4.2516298 0.1012294
8.7645292 4.2460852 0.13731547
8.8726511 4.2583208 0.14470865
8.9427691 4.2464352 0.14074607
9.0375252 4.2479272 0.13137157
9.1522923 4.2531753 0.12573621
9.2472324 4.2550683 0.11305054
9.3513947 4.261384 0.12128774
9.46527 4.2382216 0.15807158
9.5598774 4.2409043 0.15218325
9.6303473 4.2574868 0.14743079
9.7477579 4.2428374 0.13414206
9.8458195 4.2432933 0.11908238
9.9382296 4.2494993 0.11757696
10.009604 4.2477684 0.11608998
10.728282 4.2500725 -4.5241668e-05
11.285865 4.2591228 -0.00032562271
11.357262 4.2481461 0.00017445047
11.456877 4.2527032 0.00013282808
11.559361 4.2519641 7.6087701e-05
11.645993 4.2480817 4.1860196e-05
-1.9481348 4.3504348 -0.00029818196
-1.8493381 4.3491149 -4.0456896e-05
-1.7497112 4.3502345 -7.0672686e-05
-1.6488551 4.3501663 -4.5964e-05
-1.5484301 4.3504138 -1.6354677e-05
-1.451048 4.3499689 0.00015220814
-1.3547236 4.350956 -4.8238995e-05
-1.2543877 4.3500886 0.00025906973
-1.1512818 4.3499961 0.00029312176
-1.0487878 4.3499913 -0.00019883089
-0.9487043 4.3499088 -0.00013341237
-0.84942025 4.3502522 0.00014618956
-0.74920362 4.3497272 6.0356056e-06
-0.64844269 4.3498316 4.7117144e-05
-0.54818922 4.3497205 0.00014206115
-0.44989154 4.3498569 -0.00027278875
-0.35196927 4.3499622 -0.0004538151
-0.25198734 4.3499241 0.0004696715
-0.15026869 4.3491554 4.6129036e-05
-0.046408419 4.3492479 0.019812664
0.046803288 4.3506808 0.059397452
0.15166637 4.3487859 0.076189965
0.24911079 4.3500795 0.10296023
0.34988597 4.3521709 0.09083394
0.45197237 4.347477 0.079147786
0.54733783 4.3493032 0.086814143
0.64902359 4.3481088 0.093838483
0.74673396 4.35075 0.10350714
0.85142201 4.3459945 0.10419505
0.94558597 4.3499837 0.10540857
1.0509458 4.3576722 0.10221164
1.1463115 4.3518581 0.11238006
1.2516865 4.3491268 0.11828059
1.3486494 4.3465838 0.11043118
1.4518592 4.3509202 0.10246741
1.5486656 4.3502049 0.10322542
1.6468313 4.348455 0.10096752
1.748962 4.3525572 0.09126766
1.8503726 4.3482776 0.1018207
1.9462866 4.347651 0.1145633
2.05303 4.3459597 0.11674471
2.1492634 4.3599925 0.11505179
2.2589514 4.3556361 0.10966528
2.3432016 4.3438258 0.11367609
2.4458747 4.3518434 0.11948964
2.5568385 4.3465219 0.10952012
2.6480486 4.3486319 0.10554707
2.7491791 4.3530698 0.10991899
2.8399642 4.3512235 0.12253162
2.9558971 4.3458261 0.12350112
3.0566785 4.3528585 0.11527966
3.150511 4.3514476 0.12932719
3.2546682 4.3555641 0.14165376
3.3475125 4.3471737 0.13097407
3.4543076 4.3502216 0.12972689
3.5514953 4.3558092 0.12500316
3.6431684 4.3505492 0.12191348
3.7498798 4.3480411 0.13165893
3.8599339 4.3473468 0.12107246
3.9416835 4.3495054 0.12500124
4.0422115 4.350276 0.12481295
4.1545529 4.3469696 0.11002177
4.253098 4.3518968 0.10887975
4.3463454 4.351912 0.12261035
4.455935 4.3457375 0.13264798
4.5406995 4.3543353 0.14114796
4.6493306 4.3479748 0.1261607
4.7441092 4.3499646 0.13305874
4.8559732 4.3432622 0.11871807
4.9521308 4.3496838 0.12201788
5.0448451 4.3518047 0.12813175
5.1458979 4.3518767 0.12971288
5.2537355 4.3507872 0.14128195
5.3546872 4.3538079 0.12083521
5.4389095 4.3411026 0.12925917
5.5569611 4.349184 0.12938808
5.6346579 4.3544588 0.12890463
5.7638016 4.3486876 0.1277881
5.8503594 4.3503461 0.12946215
5.954998 4.368588 0.12737145
6.0536437 4.3446374 0.1390764
6.1529021 4.3486991 0.13080014
6.2497592 4.3469596 0.13111475
6.35325 4.3468652 0.13914326
6.4537439 4.3501697 0.13092031
6.5359879 4.3509116 0.13451695
6.6401639 4.3412476 0.13411394
6.743907 4.3490233 0.13928615
6.8428669 4.3506455 0.12634285
6.9552736 4.3421388 0.11852215
7.0445342 4.3545556 0.13171867
7.1508088 4.3515325 0.13341871
7.2569056 4.3489232 0.13348913
7.3555694 4.3514643 0.12536685
7.4399257 4.3512526 0.12060844
7.5577931 4.3481112 0.13269445
7.6376195 4.350739 0.13785227
7.7669134 4.3412247 0.13507523
7.8377371 4.3493881 0.13028206
7.9554067 4.3518739 0.12726504
8.0248213 4.3590837 0.11337204
8.1569281 4.372057 0.14479418
8.2486582 4.3494148 0.13709934
8.3558989 4.3485417 0.12693106
8.4518957 4.3405271 0.12068772
8.550601 4.3543601 0.10930374
8.6529436 4.346096 0.096292421
8.7528152 4.3675804 0.13594672
8.8543739 4.3572898 0.14320247
8.9542608 4.3507543 0.13642378
9.0364828 4.3472199 0.12751126
9.1492224 4.345643 0.12438358
9.2417707 4.3600559 0.11671596
9.3500814 4.3699098 0.10095247
9.4592018 4.3399372 0.16013536
9.5483847 4.3284469 0.15059055
9.6541023 4.3432364 0.14093862
9.745863 4.3548598 0.14330879
9.8375168 4.3576536 0.13293713
9.9618711 4.3228469 0.11828001
10.005502 4.3057747 0.11782432
10.564114 4.3364959 -0.00089362968
10.65969 4.3518796 -0.00015244198
10.722073 4.3684587 0.00056543236
11.284393 4.3585601 -9.7644413e-05
11.356098 4.3487787 -0.00014041891
11.456771 4.3530889 -0.0001472119
11.559977 4.350358 -6.6992812e-05
11.647988 4.3528376 -6.1250474e-05
-1.9485308 4.4505916 -0.0001215659
-1.8501064 4.4501915 0.00030589764
-1.7499616 4.4500685 -0.00018313812
-1.6490302 4.4498982 -2.3980809e-05
-1.549786 4.4515047 -0.00031168948
-1.4515589 4.450676 -7.0949398e-05
-1.354929 4.4504275 -4.4688328e-05
-1.2541244 4.4504013 6.0405862e-05
-1.1509327 4.4508681 -3.8187613e-05
-1.0488018 4.4506288 -0.00015440135
-0.94873637 4.4506536 -0.00014050429
-0.84972501 4.4503393 -5.0069243e-06
-0.74939054 4.4504962 -0.00025337149
-0.64831579 4.450623 -0.00025201659
-0.54811817 4.4505625 -8.5375046e-05
-0.45004293 4.4504743 -3.0367652e-05
-0.35216942 4.4504552 0.00028583879
-0.25161546 4.4505329 -0.00070954632
-0.15043367 4.4506435 0.00042752863
-0.047930032 4.4514155 0.020873113
0.045835711 4.4509945 0.06905631
0.15107751 4.4500918 0.085000746
0.24724737 4.4517679 0.10826512
0.34635431 4.449007 0.10140443
0.45463285 4.453362 0.07826338
0.5488829 4.4491544 0.093720868
0.65011138 4.4520216 0.10483202
0.7454136 4.4485645 0.10479078
0.85196978 4.4543614 0.086443283
0.94650418 4.4530635 0.089358285
1.0456011 4.4496536 0.089872763
1.1478689 4.4528079 0.10026003
1.2523339 4.4463987 0.10502023
1.3513312 4.4544659 0.10507938
1.4502218 4.4459705 0.10802249
1.5441934 4.4448137 0.11813224
1.6562641 4.4491453 0.10245652
1.7462305 4.4484921 0.1156216
1.8503209 4.4483194 0.11855911
1.9423987 4.4447875 0.12651739
2.0585668 4.4484301 0.11025697
2.1422381 4.4489365 0.11024643
2.2511737 4.4510932 0.12333135
2.3449452 4.4516106 0.1190957
2.4459584 4.4452238 0.11234502
2.5626934 4.4522657 0.10212747
2.6486104 4.4518204 0.10251629
2.745991 4.4472604 0.11586358
2.8480113 4.4461894 0.12245122
2.9562917 4.4528699 0.11024328
3.0495059 4.4488854 0.11567706
3.1467943 4.449163 0.1221078
3.2521734 4.4501457 0.11857755
3.3500676 4.4565434 0.12255201
3.4550107 4.4505982 0.1129242
3.5443666 4.4513979 0.1255969
3.6472411 4.4478974 0.13024457
3.7513461 4.4461255 0.12838891
3.8549974 4.4517279 0.11240467
3.9435253 4.448699 0.11834358
4.0408278 4.4490399 0.11060192
4.158432 4.4492769 0.1146816
4.2484236 4.4502835 0.11307293
4.3467317 4.4495096 0.12433967
4.4462748 4.444489 0.12613809
4.5471368 4.457191 0.13994941
4.6634789 4.4526839 0.13036044
4.7438736 4.442522 0.13624993
4.8475924 4.4481568 0.14408667
4.95047 4.4429388 0.13253799
5.0520778 4.4537654 0.13029963
5.1478462 4.4495311 0.13410425
5.2476306 4.4485121 0.13927075
5.3488574 4.4493136 0.13195571
5.4422913 4.4487081 0.13890274
5.5574079 4.4535289 0.1260155
5.650506 4.4532099 0.12537707
5.7299867 4.4537759 0.13227889
5.8494034 4.4608908 0.13621357
5.9417844 4.4405684 0.13979296
6.0497527 4.4385653 0.13703695
6.1551595 4.4485826 0.12869903
6.2453432 4.4501605 0.12027982
6.3595695 4.4431992 0.11793305
6.4472227 4.4552469 0.12292373
6.5461535 4.4505877 0.13443513
6.6504874 4.4487414 0.14122327
6.7338228 4.4520378 0.1438102
6.8602743 4.4474745 0.13331872
6.9416971 4.4472394 0.13445835
7.0493269 4.4416595 0.13046862
7.1554523 4.457098 0.12822558
7.2512736 4.4602222 0.13320774
7.3417401 4.4445891 0.12899578
7.4538584 4.4314165 0.13579814
7.5610299 4.4629812 0.13897572
7.6481633 4.4532051 0.1432566
7.7542715 4.4493251 0.12846252
7.8457022 4.4526315 0.11897971
7.9601502 4.4511371 0.11786241
8.0200148 4.441957 0.10927934
8.1554651 4.4483409 0.12009595
8.262578 4.438087 0.1329221
8.3519735 4.4554887 0.13267802
8.4518862 4.4567876 0.1172551
8.5507402 4.4507389 0.10764389
8.6353836 4.4467559 0.10898792
8.7558117 4.44977 0.14813203
8.8724537 4.4605417 0.1410397
8.94977 4.4453354 0.13704929
9.0428743 4.4515829 0.13525102
9.1303225 4.440567 0.12553662
9.245841 4.4512706 0.11501716
9.3242359 4.4634395 0.10054175
9.4489841 4.4322362 0.14052548
9.5501938 4.4512367 0.15189824
9.6506767 4.4427223 0.13843225
9.7509823 4.449532 0.1378843
9.8399506 4.4468646 0.13933715
9.923851 4.4559956 0.12815301
10.595269 4.4461188 0.002263668
10.647904 4.4619985 0.00042607673
10.720098 4.4574194 -0.00037294888
11.27891 4.4555345 0.00075176306
11.357122 4.4519682 0.00025387955
11.457574 4.4500513 -0.00023483933
11.557892 4.4495087 8.2525032e-05
11.642832 4.4515767 3.3650549e-06
-1.9482995 4.5500517 -0.00041358068
-1.8493185 4.5496907 -0.00049957918
-1.7496381 4.5495281 -0.00026817556
-1.6484903 4.5491529 0.00055939867
-1.5499989 4.5494528 6.3499516e-05
-1.4515561 4.5491681 -0.0002320889
-1.3542262 4.5488286 -2.2797027e-05
-1.2543598 4.5494838 0.00013689046
-1.1512789 4.548965 0.00035131566
-1.0485871 4.5487704 0.00010527906
-0.94880933 4.5492926 -0.00013545161
-0.84959072 4.5491881 -0.00015452188
-0.74905902 4.5491414 0.0002365221
-0.64825261 4.5491662 -0.00026476875
-0.54835486 4.5491939 0.0004434571
-0.45016024 4.5492578 -0.00020184441
-0.35207456 4.5492969 -0.00027948964
-0.2517406 4.549367 2.8390866e-06
-0.15007405 4.5494351 0.0010350576
-0.048132531 4.5509653 0.035613745
0.047502093 4.548655 0.087609693
0.15014248 4.5474796 0.10042331
0.24888369 4.5482225 0.098603636
0.34579006 4.5538769 0.09213493
0.44813901 4.5438175 0.062695093
0.5489738 4.5479074 0.066399299
0.64744538 4.5495338 0.082910262
0.74915636 4.549696 0.088010877
0.85110289 4.5489788 0.097742058
0.942801 4.5526633 0.10938229
1.0523436 4.5511093 0.099966563
1.1451283 4.5477791 0.10536037
1.2459565 4.5531039 0.10436428
1.3519266 4.548027 0.10430365
1.4502896 4.5507412 0.11969967
1.5465001 4.5526571 0.1202413
1.6536981 4.5489826 0.11069814
1.7523087 4.548254 0.11650053
1.8497499 4.5458717 0.11355801
1.9380949 4.55408 0.11300899
2.0544441 4.5526018 0.10211283
2.1539004 4.5488739 0.10390374
2.2531073 4.551405 0.11491644
2.3509543 4.5505075 0.1126597
2.4476044 4.5573454 0.11557148
2.558815 4.544199 0.10401015
2.6476033 4.5450077 0.11575296
2.7448156 4.5510106 0.12877299
2.8527894 4.5500612 0.12034212
2.9445524 4.5479803 0.12181994
3.0429285 4.5549951 0.11988321
3.1482694 4.5480886 0.11412579
3.2536821 4.5536103 0.11522216
3.3451412 4.5500159 0.12431294
3.4538674 4.5511918 0.11764408
3.5584311 4.5502677 0.12282647
3.6504052 4.5533605 0.12785013
3.7504468 4.5496922 0.13730606
3.8560565 4.55545 0.13136537
3.9529974 4.5458035 0.1266185
4.0454054 4.552527 0.11851618
4.1525207 4.5470896 0.11614352
4.2487631 4.5482154 0.12195967
4.3490186 4.5482078 0.12527506
4.4493885 4.5521894 0.12771888
4.5508056 4.5468793 0.13577086
4.6526661 4.5455012 0.13862149
4.7500582 4.5497432 0.14325356
4.8440218 4.5426474 0.14528644
4.9507408 4.5495119 0.13912591
5.0634089 4.5512753 0.12832311
5.1360269 4.5461426 0.14296472
5.2457895 4.5530829 0.14530568
5.3493032 4.5560431 0.13474801
5.4466329 4.5420122 0.13267989
5.5520349 4.5483165 0.13161436
5.6527963 4.5506897 0.12158428
5.7560997 4.5456839 0.13502683
5.8449817 4.5503054 0.14450338
5.9423842 4.5536103 0.13865191
6.0508213 4.5489092 0.12824066
6.1520305 4.5577164 0.12962531
6.2542911 4.5645504 0.13142346
6.3441677 4.5453324 0.13007179
6.4483032 4.5465789 0.12890582
6.5440302 4.5407205 0.13318628
6.6500893 4.5443516 0.13199118
6.742672 4.54741 0.1376338
6.8541107 4.556355 0.14258066
6.9504828 4.555985 0.13603915
7.059742 4.5528374 0.14004044
7.1541915 4.5530586 0.14123817
7.2412972 4.5550518 0.13630973
7.354692 4.5400748 0.12990424
7.4600511 4.5562658 0.11569597
7.5510745 4.5442705 0.13450351
7.6402607 4.5511346 0.14763726
7.7568235 4.5611792 0.13623355
7.8468628 4.5527582 0.13507235
7.9394984 4.5417819 0.12543243
8.0594006 4.5480385 0.12190466
8.1347618 4.5389032 0.12735415
8.2531443 4.5581646 0.13776301
8.3548717 4.5577564 0.13643922
8.4738255 4.5618815 0.12006785
8.5538177 4.5405464 0.11618926
8.6422691 4.55656 0.11148199
8.7559834 4.5578647 0.13914245
8.8392477 4.5641484 0.15070841
8.9528332 4.5521646 0.13891435
9.0451469 4.5412674 0.1380492
9.1581326 4.5657988 0.12076539
9.2394276 4.5563917 0.11828428
9.3412037 4.5418339 0.11707274
9.4694014 4.5443349 0.15157734
9.5251226 4.5397615 0.1522325
9.673893 4.5379734 0.14077914
9.7417784 4.5533943 0.13590719
9.8371677 4.5428233 0.13017495
9.9428711 4.5587897 0.11689425
10.006317 4.5616984 0.12606442
10.598815 4.5465236 0.0016696482
10.645411 4.5457339 0.00056467345
10.735817 4.551589 -0.00034114014
11.284172 4.5621686 -6.3546519e-05
11.357179 4.5460162 0.00018757416
11.457107 4.550065 2.1931919e-05
11.556229 4.5525146 0.00017715998
11.649481 4.5463982 -7.7470286e-05
-1.9476534 4.6499815 -0.00011307689
-1.8494488 4.6503563 0.00024872911
-1.74982 4.6507235 0.00011672411
-1.6492896 4.6508665 -0.00043856728
-1.5496354 4.6510735 0.00020450054
-1.4513208 4.6495867 0.00048346477
-1.3542598 4.6497402 0.00010122675
-1.2546006 4.6493225 5.1287014e-05
-1.1518183 4.6497831 -0.00034140854
-1.0491494 4.649415 -7.7695804e-05
-0.94876474 4.6492271 0.00021724467
-0.84967148 4.6493659 0.00022003816
-0.74937266 4.6494174 0.00025202031
-0.64836419 4.6491852 0.00021524674
-0.54815531 4.6493268 -0.00044481992
-0.45000035 4.6493053 3.9561644e-05
-0.35217103 4.6493173 0.00037569815
-0.25189185 4.6492462 0.00010430384
-0.14997235 4.649581 0.00064144348
-0.047562044 4.6493268 0.039165318
0.050503816 4.6493831 0.073334746
0.15123615 4.650394 0.084581815
0.24886775 4.6514797 0.090614721
0.34831139 4.6455259 0.091897041
0.44912526 4.6530786 0.081177697
0.5489279 4.6500936 0.08034195
0.64725447 4.6498332 0.093932338
0.74360502 4.6511545 0.094968811
0.85187387 4.647933 0.088619031
0.94747043 4.6560888 0.093066514
1.0525351 4.6514382 0.096159436
1.1426885 4.652493 0.097710125
1.2501706 4.6507254 0.095826849
1.3533415 4.6477551 0.091198601
1.4448785 4.6458168 0.10850612
1.5465543 4.6483855 0.11786898
1.6595367 4.644146 0.11450936
1.7589645 4.6484137 0.10674694
1.8495787 4.6548204 0.10993361
1.9528166 4.6509786 0.11805113
2.0389347 4.6528482 0.11800269
2.1557019 4.6495628 0.11322323
2.2478633 4.6523261 0.12078245
2.3506331 4.6456261 0.1201284
2.4543111 4.6513863 0.12162846
2.5562787 4.6499619 0.10179185
2.643518 4.6503644 0.121167
2.7508759 4.6508727 0.12580186
2.8520055 4.6497784 0.12679194
2.9452579 4.6500134 0.11945604
3.0385582 4.6531768 0.12876771
3.1566672 4.6549034 0.11677993
3.2539639 4.6511555 0.12467659
3.3421803 4.6471834 0.1355371
3.4513795 4.6544175 0.12478387
3.5522475 4.6509199 0.12810878
3.6583748 4.646008 0.12787381
3.7499671 4.6454382 0.13200521
3.8560743 4.647788 0.12237223
3.9559917 4.6511617 0.1289257
4.0463185 4.6558599 0.12634742
4.1623416 4.649724 0.13059078
4.2432199 4.6421905 0.12170959
4.3467221 4.653955 0.11934209
4.4486299 4.6428418 0.12530136
4.5552635 4.6533704 0.13048095
4.6513042 4.6448679 0.14309262
4.7467141 4.6501074 0.14426139
4.8499727 4.6486154 0.14098069
4.9603114 4.6561756 0.14024608
5.0609407 4.643899 0.12448996
5.1404281 4.6503711 0.13386837
5.2529368 4.6487341 0.13776202
5.3488665 4.652256 0.13686998
5.4593477 4.6516409 0.13273427
5.5535049 4.6499896 0.13529356
5.6304688 4.6536641 0.13896531
5.7569084 4.6449118 0.12610748
5.8469682 4.6520934 0.13720396
5.9423585 4.6613631 0.13786794
6.060802 4.6587629 0.12849849
6.144702 4.6488266 0.1382062
6.249691 4.6418862 0.13303615
6.3561773 4.653954 0.12683286
6.4496145 4.6577682 0.13167427
6.5499477 4.6559277 0.1290222
6.6488357 4.6508846 0.12293945
6.7460847 4.6479731 0.13863848
6.8540215 4.6543503 0.13303044
6.9513078 4.6508284 0.13271299
7.0441976 4.6553087 0.1423384
7.1579714 4.6533251 0.13783891
7.2551003 4.6501322 0.13089769
7.354095 4.65803 0.12690304
7.4582686 4.6408124 0.11798371
7.5312848 4.6405897 0.12032847
7.6445966 4.6540775 0.14734071
7.7448473 4.6479754 0.13858855
7.8395786 4.6446753 0.13777879
7.9532871 4.6419921 0.12414132
8.0431547 4.65065 0.11516582
8.1751738 4.6587086 0.14722793
8.2523899 4.6505427 0.13918339
8.3426905 4.650166 0.13595067
8.45368 4.6482668 0.13108627
8.5473022 4.6537495 0.11834043
8.6279812 4.6455212 0.11289219
8.7710457 4.6476102 0.14748983
8.8406868 4.6399255 0.144264
8.9512863 4.6488791 0.13537773
9.0537243 4.6584754 0.13084263
9.1518927 4.6500144 0.12513889
9.2327509 4.6596198 0.11393037
9.3403635 4.6842704 0.10570689
9.4703817 4.6499472 0.15498137
9.5533781 4.6718922 0.14624241
9.676136 4.6474514 0.14198798
9.7573042 4.6446662 0.13085318
9.8472414 4.6529903 0.12934849
9.9355326 4.6528177 0.12497754
10.024509 4.6349502 0.097886205
10.664607 4.6504331 0.00031257872
10.727352 4.651722 -0.00049332989
11.286696 4.6580577 -0.00045475079
11.358338 4.6510515 6.5558277e-05
11.460975 4.6458898 -1.1303335e-05
11.55908 4.6546645 -4.9149341e-05
11.645823 4.6488824 0.00027446315
-1.9478407 4.7492523 -9.2576185e-05
-1.8492272 4.7496457 -0.00010382183
-1.7499204 4.75034 3.0112524e-05
-1.6484675 4.7504888 -0.00013869333
-1.5489632 4.7506633 7.2730072e-05
-1.4518319 4.7507653 -0.00023881638
-1.3553859 4.7503629 -0.00022260216
-1.2544571 4.7509356 -0.00019893279
-1.1511267 4.7503762 0.00021831278
-1.0490527 4.7509995 -0.00037821539
-0.94897753 4.7508402 -0.00041708679
-0.84948242 4.7507486 -0.00025801163
-0.74922764 4.7508106 0.00033191772
-0.64852285 4.7509227 0.00016085403
-0.54831481 4.7508202 0.00035790354
-0.45006278 4.7507339 -0.00015947886
-0.35213572 4.750628 0.00029654111
-0.25179926 4.7506204 3.6379028e-05
-0.15070854 4.7507224 8.6719461e-05
-0.047480419 4.7504468 0.011654242
0.049519405 4.7508488 0.054910313
0.15139213 4.7504015 0.074935734
0.24893542 4.7522869 0.094764605
0.35020465 4.7526894 0.0984139
0.4460358 4.7509208 0.10382219
0.54791081 4.7477303 0.10264871
0.65197861 4.7505045 0.098109744
0.74999326 4.749619 0.092370145
0.85302633 4.7539062 0.084813491
0.94653225 4.7525539 0.094500206
1.0482994 4.750227 0.096705489
1.1448232 4.7524757 0.10193797
1.2539613 4.7468243 0.091430165
1.3482668 4.7514749 0.086820327
1.4421959 4.7530031 0.11125331
1.5469 4.7465382 0.10394878
1.6532335 4.7546592 0.10001562
1.7548107 4.7503963 0.093731858
1.8422908 4.7474365 0.10281122
1.9519435 4.7527056 0.11526472
2.042526 4.7487049 0.12549944
2.1518533 4.7486825 0.12202635
2.2465165 4.7519298 0.12511857
2.3462615 4.7401156 0.11638537
2.4553993 4.7553301 0.10749798
2.549087 4.7431273 0.11108032
2.6527162 4.7499251 0.11731167
2.7547312 4.7513576 0.12326405
2.8567696 4.753334 0.12564507
2.9409173 4.7559042 0.11004156
3.0483932 4.7495222 0.10530644
3.1495628 4.7521172 0.10817634
3.2474487 4.749032 0.12802707
3.3476949 4.7523608 0.12825096
3.443418 4.7447958 0.12636967
3.5427918 4.748682 0.12268796
3.6543117 4.753129 0.12338196
3.7435048 4.7498412 0.12435471
3.8551223 4.7520828 0.12706749
3.9488058 4.7459879 0.12484141
4.0481281 4.7579551 0.12832503
4.1497993 4.7511263 0.12934545
4.2577024 4.7553706 0.11489374
4.3480535 4.7568359 0.11756061
4.4515376 4.746068 0.12513784
4.5600138 4.7451968 0.12201779
4.6480312 4.7466059 0.1355284
4.7537093 4.7538271 0.13575363
4.843617 4.7550855 0.13546894
4.9426656 4.7429075 0.1421186
5.0588975 4.751101 0.13221125
5.1551781 4.7385221 0.13351266
5.2569909 4.7460699 0.13727006
5.3565669 4.7526689 0.13319184
5.4520054 4.7492943 0.14143255
5.5483046 4.7466741 0.14506046
5.6455321 4.7568259 0.13457361
5.7553339 4.7504764 0.13819829
5.8472886 4.7480359 0.13530177
5.9502792 4.7552891 0.13095042
6.0623407 4.7548952 0.12452454
6.1344862 4.743413 0.13484009
6.2503448 4.7546082 0.12528221
6.3626995 4.7543716 0.11983192
6.4470091 4.7437325 0.11700573
6.5528288 4.7543197 0.12562099
6.6549764 4.7507691 0.13534494
6.7556906 4.7476048 0.13814355
6.8501644 4.7368994 0.13081427
6.9507399 4.7584934 0.13412215
7.0397129 4.7492089 0.13256852
7.1698685 4.7410545 0.13422625
7.2470107 4.7568164 0.13973655
7.3446827 4.7457914 0.1366681
7.4390535 4.7422214 0.12193413
7.5625143 4.7598457 0.12523411
7.6472964 4.7452116 0.13024803
7.757184 4.7408829 0.13814874
7.8465366 4.7476077 0.13035633
7.9485407 4.752337 0.12595062
8.0477352 4.7474246 0.13106404
8.1484175 4.7403688 0.15129489
8.2659864 4.7425947 0.13982579
8.3524084 4.7541256 0.13975644
8.4389296 4.7428718 0.13824363
8.5498753 4.7399893 0.1208586
8.6382399 4.7483759 0.11738964
8.7549791 4.7351465 0.13473585
8.8402357 4.7474442 0.13888113
8.9460287 4.7472205 0.13878332
9.0474911 4.7515163 0.12899022
9.1433039 4.7531877 0.12656318
9.2380371 4.7636323 0.12032402
9.341217 4.7420506 0.11155995
9.4677982 4.7419696 0.1545956
9.5529213 4.7482371 0.1529191
9.648901 4.753787 0.13827626
9.7557974 4.7301993 0.13136402
9.8467331 4.7523079 0.12585342
9.936141 4.7473149 0.12027012
10.016408 4.712851 0.12437391
10.506275 4.7337193 0.00041982817
10.664197 4.7350292 -0.00034887512
10.720549 4.7433429 0.00026237452
11.281948 4.7579203 0.00028103212
11.358723 4.7522845 -0.00015790066
11.458936 4.7517061 -0.00018575953
11.560439 4.7523131 -0.00037033777
11.646106 4.7509828 -0.00011061785
-1.947602 4.8501191 -0.00042503895
-1.8491687 4.8499222 1.5273272e-05
-1.7495844 4.8502398 5.6282894e-05
-1.6480772 4.8497138 0.00015616836
-1.5493269 4.848949 -0.00020546834
-1.4523127 4.8492622 -7.8905025e-05
-1.3549161 4.8489614 -0.00027538455
-1.2545702 4.8489585 0.00022745969
-1.1513544 4.8492274 0.00012028456
-1.0485328 4.8492627 -0.00018540706
-0.94874841 4.8491125 0.00041126841
-0.84963626 4.8492441 0.00031105615
-0.74942869 4.8491569 -0.00015337735
-0.64876282 4.8491745 -8.5830347e-05
-0.54850656 4.8490353 -4.3523847e-05
-0.45015082 4.8490615 -5.746309e-05
-0.35215434 4.84902 0.00022800457
-0.25182247 4.848773 0.00014647729
-0.15036061 4.8490982 0.00021736453
-0.047359969 4.8484707 0.024482511
0.046291672 4.8492107 0.065129049
0.15329251 4.8496222 0.066175535
0.25105903 4.8489304 0.08077886
0.35193089 4.849422 0.097710766
0.44626874 4.8478661 0.11248247
0.54801381 4.8464918 0.093269393
0.65323657 4.8532844 0.080135673
0.74832129 4.8469472 0.078605421
0.84588915 4.8518314 0.092624843
0.95777524 4.8497496 0.093530148
1.0477726 4.8496413 0.10529826
1.145926 4.8479724 0.11313645
1.2564237 4.8534751 0.1029321
1.3441234 4.8440819 0.098290712
1.4517486 4.8481293 0.095875166
1.5501708 4.851706 0.097702846
1.6538723 4.8515959 0.10823201
1.7497307 4.847312 0.12124263
1.851886 4.850081 0.11518497
1.945858 4.8496609 0.118727
2.051234 4.8499389 0.12251409
2.1521759 4.8477974 0.1197932
2.2409289 4.8499255 0.11775186
2.3535786 4.8536592 0.11086813
2.4437864 4.8467584 0.11277679
2.5467598 4.8512158 0.1216163
2.6469073 4.8464713 0.12395516
2.7526493 4.8521471 0.12464281
2.8500135 4.8479223 0.12519109
2.9510436 4.8542924 0.12878652
3.0486393 4.8426967 0.12277019
3.1538494 4.8456364 0.12168434
3.250983 4.8581896 0.12001783
3.3518665 4.8464131 0.12150107
3.4540353 4.8536205 0.1058533
3.5478969 4.8525777 0.12306865
3.6443093 4.8431334 0.13399662
3.7519946 4.8508267 0.13091587
3.8478844 4.8498235 0.13331093
3.9462764 4.8469305 0.13611154
4.0471864 4.8512235 0.13843799
4.147141 4.8476243 0.1329045
4.2418408 4.8524041 0.13318552
4.3547039 4.8399248 0.12115227
4.4458485 4.8525205 0.12974526
4.5457234 4.8572698 0.12332214
4.6555548 4.8562722 0.12447468
4.7432413 4.8469276 0.12705196
4.8432508 4.8514528 0.13774116
4.9515309 4.8595543 0.14233355
5.0491943 4.847805 0.13794343
5.153903 4.849525 0.1386452
5.2426376 4.8534384 0.14150302
5.3404551 4.8389049 0.13661806
5.4450665 4.8397703 0.1456632
5.5383887 4.8540287 0.14045382
5.6652222 4.8530631 0.1289442
5.7403426 4.8525066 0.12945008
5.8584886 4.8534002 0.13714547
5.9417715 4.8461518 0.14005093
6.063951 4.8467789 0.12455281
6.1473341 4.855175 0.13003649
6.2413359 4.8553963 0.13669956
6.3518782 4.850893 0.13989638
6.4411182 4.8508058 0.13830614
6.5571203 4.8427644 0.13587734
6.651329 4.8459897 0.13469195
6.7492757 4.8530855 0.14328589
6.8451657 4.8462348 0.14712417
6.9575081 4.8483553 0.12575907
7.0542216 4.8399301 0.13335346
7.1625938 4.8510423 0.1308134
7.2492938 4.8437157 0.14014716
7.3344154 4.8352752 0.13114384
7.4773493 4.8429446 0.12851544
7.552609 4.8580666 0.1064276
7.6404719 4.8534589 0.13461
7.7434754 4.8568239 0.14152524
7.8559947 4.848516 0.13093172
7.9323387 4.8479419 0.1262915
8.0561934 4.8347206 0.12451626
8.1422548 4.8488846 0.14254352
8.2648001 4.848896 0.14129116
8.3375092 4.8391256 0.13908653
8.4328585 4.8561754 0.14102247
8.5542336 4.8576531 0.12091359
8.6536303 4.8442173 0.12651752
8.7546597 4.8547325 0.1466148
8.8383875 4.8540654 0.14935315
8.9557886 4.8492317 0.13663706
9.0429811 4.847393 0.13435987
9.1393967 4.844996 0.12784906
9.2513742 4.851593 0.11468504
9.3343058 4.8786883 0.099290252
9.4643545 4.8628678 0.11241762
9.5626621 4.8439989 0.1450461
9.6457567 4.8567233 0.1382705
9.7473984 4.8559794 0.13206922
9.8570004 4.8404202 0.12577894
9.9173727 4.8600574 0.11653358
10.541213 4.8531981 -0.00019818265
10.644489 4.8437848 0.00053301401
10.724389 4.8597937 -0.00010170648
11.288549 4.8534083 -0.00074161141
11.358051 4.8542995 2.4184596e-06
11.455732 4.8524795 -9.9926117e-05
11.559841 4.8538389 -0.00011094475
11.646509 4.8505378 8.0439873e-05
-1.9483719 4.9505987 -1.0941249e-05
-1.8504806 4.9499321 -0.00018851417
-1.7501281 4.9504037 4.9674327e-05
-1.6486075 4.9504356 -0.00036307797
-1.5493916 4.949429 6.7299261e-05
-1.4508966 4.9496627 -0.00047603945
-1.3542606 4.9501252 0.00023169474
-1.2548029 4.9496889 -0.00039800661
-1.1513191 4.9502077 2.1429707e-05
-1.0486964 4.9495273 0.00013535153
-0.94865906 4.9497499 0.00066314044
-0.84957337 4.9498425 4.665555e-05
-0.74929094 4.9496446 -0.00030899589
-0.64853925 4.9497633 -0.00023705531
-0.54839575 4.9497943 -4.5396439e-05
-0.45008048 4.9498439 0.00025805528
-0.35206014 4.9498277 -5.5580957e-05
-0.25179377 4.9496598 -0.00011228338
-0.14998697 4.9504724 0.0011154856
-0.050882824 4.9483647 0.021683604
0.04645554 4.9519372 0.058278438
0.14723058 4.9490175 0.068409689
0.25012636 4.9477687 0.073180623
0.34961534 4.9507685 0.094396099
0.44709918 4.9500847 0.09905497
0.55274791 4.9523902 0.077242129
0.64946699 4.9506865 0.08899907
0.75109297 4.951489 0.10262328
0.84581411 4.9476948 0.1148314
0.95317793 4.9505844 0.10724314
1.0459993 4.9517169 0.11088508
1.1545721 4.9486103 0.10208926
1.2498865 4.9483581 0.10665303
1.3489919 4.9526429 0.11148001
1.4479522 4.9467559 0.11025006
1.5483302 4.9546995 0.093970858
1.6563708 4.9507432 0.0981576
1.7471067 4.9519897 0.11878943
1.855526 4.9486423 0.11942812
1.9480377 4.9458165 0.11199454
2.0502138 4.9505682 0.11489245
2.1470914 4.9527116 0.12111873
2.2520237 4.9452124 0.11198178
2.3507881 4.9524579 0.1133384
2.4460509 4.9487839 0.12305349
2.5507665 4.9459219 0.12299644
2.6432939 4.9543576 0.13174577
2.7525406 4.9484572 0.12495309
2.8521605 4.9519944 0.12813921
2.9498305 4.9503479 0.135877
3.0465128 4.9551997 0.12535693
3.146317 4.9432378 0.11972528
3.2561965 4.9503236 0.10627099
3.3496349 4.9505992 0.10722465
3.455348 4.9544621 0.11499611
3.5477529 4.9451084 0.13026887
3.6526906 4.9536242 0.13705875
3.7535381 4.9493537 0.13533756
3.8435361 4.9444103 0.13299148
3.9490621 4.9553242 0.13562866
4.0436926 4.9459424 0.14153093
4.1526885 4.9530854 0.1408291
4.2518706 4.9512787 0.14384177
4.341671 4.9500937 0.13006279
4.4638906 4.9438791 0.12420443
4.5422134 4.9535117 0.12965731
4.6486597 4.9554305 0.12670532
4.7524204 4.9409719 0.1311211
4.8519182 4.9522786 0.13798581
4.9523749 4.9496236 0.140285
5.0435534 4.9456716 0.14380468
5.1578126 4.9594564 0.14901082
5.2510853 4.9406409 0.14403345
5.3395739 4.9531031 0.13270991
5.4452939 4.9600515 0.13686259
5.5366616 4.9451737 0.14031571
5.6724801 4.9465628 0.12038694
5.7464676 4.9498878 0.12638476
5.8505049 4.9473481 0.13465491
5.9437547 4.9526525 0.1390195
6.0697203 4.976552 0.13776839
6.1584229 4.9432139 0.12177835
6.250257 4.948885 0.14119741
6.3431978 4.9529262 0.14358526
6.4617381 4.9510489 0.13541877
6.549787 4.9468241 0.14033182
6.6549683 4.9515615 0.14103936
6.7506146 4.9519005 0.1406226
6.8547707 4.952208 0.13966352
6.957932 4.9485931 0.12951131
7.0411253 4.944756 0.11687389
7.1535449 4.9399366 0.13349117
7.2435474 4.9429655 0.13592169
7.3452401 4.9699388 0.13343577
7.4564266 4.9553256 0.10086318
7.5613918 4.9437084 0.1056231
7.6444283 4.9461126 0.13221723
7.7437196 4.9486742 0.1379907
7.8547645 4.9522271 0.12872481
7.9327569 4.9512014 0.12690116
8.0428772 4.9512601 0.12940994
8.1408949 4.9532809 0.1401421
8.2569847 4.9502616 0.14003085
8.3469391 4.950356 0.1356582
8.4477177 4.9601107 0.13457316
8.562582 4.9437976 0.11629686
8.6477451 4.9497547 0.10691872
8.7715139 4.9400406 0.12640184
8.8430004 4.9370146 0.14360841
8.9623594 4.9582958 0.13240905
9.0490503 4.9481845 0.13138665
9.1345234 4.9545779 0.13151732
9.2559958 4.9409027 0.11366678
9.3265324 4.9595995 0.098438337
9.4499092 4.9613204 0.14972727
9.5645695 4.9478798 0.14826903
9.646266 4.9405651 0.13560148
9.7600794 4.9617133 0.12806676
9.8603783 4.9588437 0.12102115
9.9223499 4.951345 0.11960886
10.533125 4.9636016 0.00011000324
10.648052 4.9653754 -0.00048707554
10.71645 4.9548688 0.00023814505
11.28251 4.9536304 0.00019390223
11.358445 4.9532971 4.9369926e-05
11.460603 4.9498358 -0.000111586
11.55771 4.9522195 -0.00013492179
11.644418 4.948276 -0.00013915804
-1.9480865 5.048677 -0.00079118501
-1.8492132 5.0485296 -0.00049874256
-1.7497246 5.0496073 -6.2667088e-05
-1.6489069 5.0497808 -0.00015421565
-1.5494142 5.0499806 2.6151438e-05
-1.4519361 5.0499759 -0.00038498041
-1.3548021 5.0507154 -7.790883e-05
-1.2546464 5.0509205 7.8523211e-05
-1.1515764 5.0507669 -0.00012959483
-1.0483652 5.0511417 0.00026522283
-0.94836736 5.051054 0.00025750519
-0.84972614 5.0509634 -0.00024791443
-0.74912834 5.0511503 -0.00039868441
-0.64810282 5.0509644 -0.00051414373
-0.54824251 5.0510025 0.00029855286
-0.4501678 5.0509067 0.00019517445
-0.35204756 5.0506878 -0.00023753752
-0.25187373 5.0504637 0.00020206084
-0.15032203 5.0506334 0.00072071532
-0.048651841 5.0500298 0.012202569
0.04896925 5.0504794 0.059039351
0.14479437 5.0513968 0.083970971
0.25449663 5.0478859 0.052613359
0.34587005 5.0501776 0.077648118
0.44989142 5.0503378 0.094209649
0.54862422 5.0501809 0.091094464
0.64697069 5.0480638 0.10167738
0.75537777 5.0483947 0.10536154
0.84419495 5.0529933 0.111849
0.9500308 5.0492697 0.10254142
1.0524305 5.0503449 0.1076382
1.1521454 5.0469074 0.11173154
1.2500174 5.0452504 0.1066986
1.3479923 5.0511765 0.11493222
1.4494694 5.0476503 0.11180295
1.54742 5.0483952 0.10232428
1.6488219 5.0475817 0.11006483
1.7457498 5.0481291 0.1272938
1.8421865 5.0477467 0.12678427
1.9460185 5.0480676 0.11354198
2.0551398 5.0553994 0.10246551
2.1425586 5.0500484 0.12037934
2.2543077 5.0510464 0.11840289
2.3418477 5.0439878 0.12133539
2.4598577 5.0463548 0.1111782
2.5431366 5.0519972 0.10300086
2.6428113 5.0436392 0.11413188
2.7585726 5.0534344 0.099550828
2.850364 5.0487108 0.10526217
2.945565 5.0539966 0.11159408
3.0501044 5.0504341 0.11625975
3.1492424 5.0518384 0.1245177
3.245034 5.0577774 0.1266095
3.3505418 5.0512352 0.11667097
3.452112 5.048008 0.11973433
3.5502849 5.0517421 0.12301646
3.6414626 5.0505986 0.13192275
3.7544494 5.0554423 0.13159949
3.8386369 5.0488529 0.12498157
3.9522152 5.0457239 0.12876022
4.0364947 5.0519767 0.13622826
4.1598272 5.0506496 0.1367203
4.2433496 5.0545278 0.13400201
4.3459139 5.0506616 0.1390976
4.4529109 5.0500612 0.13000165
4.5522966 5.0592418 0.13614649
4.6493955 5.040215 0.12666269
4.7402754 5.0493169 0.13548295
4.8542447 5.0464511 0.12870321
4.949831 5.0500364 0.14569221
5.0459223 5.0515862 0.1482387
5.1540756 5.0645285 0.13888782
5.2389073 5.049921 0.13771148
5.3474956 5.0490017 0.13099892
5.4504352 5.0422692 0.12036446
5.5520983 5.0511193 0.13500701
5.6515465 5.0588946 0.12787655
5.7493777 5.0504923 0.13170695
5.8509068 5.0481267 0.13646749
5.9565587 5.043643 0.13598998
6.0555081 5.0506191 0.13027896
6.1539688 5.0508914 0.13892935
6.2510328 5.0557241 0.1318
6.3526516 5.0605106 0.12172817
6.4420238 5.0471439 0.13458334
6.5453568 5.0522537 0.13227361
6.6454 5.0471692 0.13856329
6.7638249 5.0511284 0.13503429
6.8522983 5.0526781 0.1353361
6.941361 5.0431833 0.13522631
7.0667105 5.0618339 0.13590775
7.1694455 5.0530834 0.12653296
7.250639 5.0432391 0.12441725
7.3578033 5.0487957 0.12493914
7.4476328 5.0530796 0.12414449
7.5598826 5.0304017 0.13441265
7.6552939 5.0718865 0.13631642
7.7595391 5.0524974 0.128958
7.8401537 5.0476646 0.12825988
7.9464922 5.0478172 0.12479346
8.0371885 5.0623002 0.11803059
8.1603241 5.0594416 0.14171386
8.2614889 5.0381474 0.14251484
8.3385258 5.0584307 0.13613991
8.454524 5.0421467 0.12974972
8.5546427 5.0614657 0.12028326
8.6556358 5.0429239 0.10383065
8.7427263 5.0642619 0.14107023
8.8663654 5.0393376 0.14021009
8.9374876 5.0595665 0.13675176
9.049242 5.0454197 0.13270672
9.1340427 5.0569124 0.12388593
9.2409477 5.0593791 0.11570399
9.3465357 5.0468264 0.10714334
9.4575262 5.0471931 0.15689932
9.5463247 5.0402584 0.14800416
9.6588736 5.0526123 0.13207987
9.7548895 5.0447292 0.13034447
9.8310785 5.0505834 0.12823105
9.9587383 5.0689673 0.11967557
10.00087 5.0774999 0.11022353
10.550295 5.0388193 -0.00025388913
10.655457 5.0476279 0.00022169873
10.72315 5.0621939 -0.00050341798
11.283595 5.0524445 2.5901114e-05
11.357922 5.0521026 7.413893e-05
11.458336 5.0501499 -0.00022323865
11.55853 5.0501986 9.1868264e-05
11.642797 5.0482903 7.6293931e-05
-1.9477921 5.1507287 -0.00026475298
-1.8495169 5.1509767 0.00023493517
-1.7500836 5.1503839 0.0001947159
-1.649479 5.1500983 -0.00054277916
-1.5493702 5.1490884 0.00033082164
-1.451095 5.1493201 0.00019343497
-1.3549069 5.1498613 -0.00010930837
-1.2545762 5.1499324 0.00035359303
-1.150907 5.1498332 -0.00011240989
-1.0483809 5.1496887 0.00012032779
-0.9486928 5.1499057 0.00068671448
-0.84969616 5.1500053 0.00018170368
-0.74938732 5.1498585 -2.0123827e-05
-0.64839679 5.1499014 0.0001888073
-0.54809242 5.1498795 -0.00027258639
-0.45011184 5.1499076 -9.3140188e-05
-0.35216454 5.1498775 0.00012096084
-0.25175476 5.149672 -0.00017916146
-0.1505021 5.1497707 0.00045192122
-0.048048813 5.1493478 0.010375525
0.047133148 5.1510105 0.059328318
0.15003254 5.1491246 0.087667763
0.25618637 5.1501713 0.075102605
0.34866291 5.1475744 0.084200561
0.44804114 5.1506648 0.092054039
0.5507012 5.1499629 0.096491456
0.65061224 5.1477404 0.096452489
0.7512303 5.1531229 0.092315555
0.84406823 5.1499081 0.10234392
0.95309418 5.1519418 0.098453544
1.0492945 5.1497827 0.1056412
1.1526797 5.143105 0.10740156
1.248407 5.1516991 0.10596973
1.3464336 5.1492491 0.11305761
1.4479108 5.1521392 0.10963064
1.5471274 5.1494341 0.11428162
1.6482465 5.1529584 0.11596115
1.744563 5.1498895 0.12321293
1.8638418 5.1551857 0.10962424
1.9511589 5.1474357 0.10701249
2.0491123 5.1550522 0.11525974
2.1511822 5.1493025 0.12258392
2.2530775 5.1522384 0.11885168
2.3429463 5.1549716 0.12345501
2.447504 5.1448431 0.11459421
2.5511904 5.1477008 0.10682149
2.6454587 5.1441798 0.11597586
2.7567182 5.1546483 0.090739831
2.8453338 5.153625 0.10397074
2.9469092 5.1463771 0.11926534
3.0524688 5.1420603 0.1252085
3.1533682 5.1509023 0.12463778
3.2437558 5.1501536 0.12823376
3.3547552 5.1493807 0.12824768
3.4583457 5.1452136 0.12036222
3.5469832 5.1535802 0.12124169
3.6542065 5.146389 0.12307173
3.747756 5.1509295 0.12614641
3.8496697 5.1481256 0.12830564
3.9645112 5.1485567 0.12091617
4.0390558 5.1528044 0.13092187
4.1472192 5.1503406 0.13495865
4.2473116 5.1511297 0.1344187
4.3446989 5.1495895 0.13721658
4.4473062 5.1446095 0.13684008
4.5492258 5.1515436 0.1388651
4.6387572 5.1556516 0.12695761
4.7514877 5.15483 0.13658212
4.8541474 5.15308 0.13313541
4.9473853 5.1439195 0.14510296
5.0445089 5.1505055 0.13866036
5.1502547 5.1532612 0.13641445
5.2468257 5.1502023 0.14090352
5.3395667 5.1506968 0.13393068
5.4598808 5.1471262 0.11925677
5.5494056 5.1491437 0.13624977
5.6495724 5.1485186 0.1216594
5.7475705 5.1462259 0.13749261
5.8435202 5.1539974 0.14210095
5.9508419 5.1388474 0.13633978
6.0419202 5.1436238 0.13549024
6.1660433 5.1566944 0.12361743
6.2399759 5.1525469 0.13565373
6.3399105 5.1492143 0.13347222
6.4384031 5.1424389 0.13193783
6.5496726 5.1524954 0.13215907
6.6538281 5.1552305 0.12246438
6.7510424 5.1484284 0.13383545
6.8426619 5.1500945 0.12876765
6.9376578 5.1479325 0.12912765
7.0551839 5.1610899 0.12790973
7.156312 5.1498966 0.13225308
7.2336817 5.1435871 0.1276149
7.3495765 5.1450839 0.12266082
7.4437103 5.1437631 0.11581656
7.5486851 5.1592851 0.12055668
7.6642213 5.1539693 0.1385615
7.7428327 5.156981 0.13535352
7.851615 5.1513038 0.13377029
7.9481907 5.1435318 0.12308403
8.0526514 5.1489697 0.11591306
8.1491861 5.1519642 0.12039715
8.2574749 5.1475854 0.1323677
8.343545 5.1488805 0.13525087
8.4392004 5.1551085 0.13497615
8.5450077 5.136023 0.11255298
8.6363649 5.1552582 0.11060333
8.7423687 5.1376557 0.14386079
8.8472157 5.1636033 0.14333783
8.953804 5.145071 0.136604
9.0483265 5.1451349 0.1319035
9.1398325 5.1465912 0.1144254
9.2482157 5.1602478 0.11300187
9.3454638 5.139698 0.10133388
9.4561205 5.1420426 0.12512034
9.5523968 5.1701322 0.14480858
9.64291 5.1543293 0.13773459
9.7440186 5.1534343 0.13183582
9.8521299 5.1422501 0.12357488
9.9419127 5.1410432 0.10117591
10.015736 5.1410165 0.10494081
10.495049 5.1804175 0.0023005037
10.553558 5.1535077 -0.00017207576
10.65505 5.158741 0.00020605612
10.72773 5.1506515 -0.00073150499
11.282974 5.1563492 0.00012212429
